# This PCD file was generated using the MATLAB® pcwrite function
# from Computer Vision Toolbox®.
# .PCD v.7 - Point Cloud Data file format
VERSION .7
FIELDS x y z
SIZE 8 8 8
TYPE F F F
COUNT 1 1 1
WIDTH 841
HEIGHT 1
VIEWPOINT 0 0 0 1 0 0 0
POINTS 841
DATA ascii
7.961235399540614 -64.930211289578224 4.344385189417699
8.882877585904017 -64.680908063895060 4.206843576644813
10.009329147014846 -64.764009139122777 4.445264748455434
11.033376020751962 -64.680908063895060 4.143173799095809
-18.459173942876976 -63.932998386845533 4.051794538370401
-16.923103632271303 -63.683695161162355 4.121508856432771
-15.694247383786765 -63.683695161162355 4.613650640363575
-14.465391135302225 -63.683695161162355 4.649433432156428
-13.338939574191398 -63.600594085934631 4.547813955807616
-12.314892700454282 -63.932998386845533 4.866140611960565
7.961235399540614 -63.932998386845533 4.638136139781146
8.985282273277729 -63.766796236390086 4.097610291428713
10.111733834388557 -63.683695161162355 4.186159429660057
11.442994770246809 -63.766796236390086 4.216961767694792
-18.151959880755843 -62.686482258429656 3.930296862783042
-16.615889570150170 -62.686482258429656 4.129446587383412
-15.694247383786765 -62.686482258429656 4.803121167137997
-14.567795822675937 -62.769583333657387 4.479774982312570
-13.543748948938820 -62.935785484112834 5.007956710631627
-12.314892700454282 -62.935785484112834 4.742365151239550
10.214138521762269 -62.769583333657387 4.339661236959846
11.238185395499384 -62.603381183201932 4.144227516099416
12.262232269236501 -62.437179032746485 4.194903132681980
-16.923103632271303 -61.938572581380136 4.090980639186294
-15.694247383786765 -61.938572581380136 4.745569617629195
-14.567795822675937 -61.606168280469234 4.387919379083266
-13.236534886817687 -61.689269355696958 5.026121697386254
10.418947896509692 -61.938572581380136 4.434334116294581
11.033376020751962 -61.689269355696958 4.395716678663039
12.262232269236501 -61.439966130013786 4.114674211056644
-17.230317694392436 -60.941359678647437 4.257320246269611
-15.591842696413051 -60.608955377736535 4.287440660872160
-14.465391135302225 -60.692056452964259 4.466472595354437
-13.338939574191398 -60.608955377736535 4.531158067521814
-11.086036451969742 -60.941359678647437 4.340391159404464
11.442994770246809 -60.775157528191990 4.845936344356030
12.262232269236501 -60.941359678647437 4.086559178116357
13.491088517721041 -60.442753227281088 4.042001626932678
-15.387033321665630 -59.944146775914739 4.163542050484223
-14.465391135302225 -59.694843550231568 4.299561534741612
-13.236534886817687 -59.694843550231568 4.960833967875565
-12.314892700454282 -59.445540324548389 4.991235098418567
-10.471608327727473 -59.445540324548389 4.045505334699997
12.569446331357636 -59.694843550231568 4.522842059521778
13.798302579842174 -59.445540324548389 4.303811343086782
-14.158177073181090 -58.946933873182040 4.082652721461917
-13.236534886817687 -58.697630647498869 4.338007123447215
-12.007678638333147 -58.697630647498869 4.768488940609907
-10.471608327727473 -58.448327421815691 5.109946689189195
12.467041643983924 -58.780731722726593 4.716255196428999
13.695897892468462 -58.780731722726593 4.528225949177114
15.129563515700426 -58.614529572271138 3.953245001831851
11.647804144994231 -57.451114519082992 4.828622433167685
14.105516641963309 -57.700417744766170 4.774791142883724
14.719944766205579 -57.451114519082992 4.294401798053799
13.900707267215887 -56.620103766805741 4.648663495529319
15.129563515700426 -56.620103766805741 4.093459478562135
12.876660393478771 -55.456688713617595 4.539441905174442
13.900707267215887 -55.622890864073042 4.821528029406140
14.719944766205579 -55.705991939300773 4.495554158365766
12.876660393478771 -54.459475810884896 5.033467255171431
13.798302579842174 -54.708779036568075 4.503347976772836
14.719944766205579 -54.708779036568075 4.085576957122210
12.876660393478771 -53.960869359518547 4.364619554765996
13.798302579842174 -53.711566133835376 4.416834164751938
14.719944766205579 -53.960869359518547 4.125885273979965
12.467041643983924 -52.797454306330401 4.488153287620170
13.491088517721041 -52.714353231102677 4.322100787533415
11.647804144994231 -51.717140328369979 5.060497184553431
12.467041643983924 -51.634039253142248 4.427589105901099
13.798302579842174 -51.717140328369979 4.081350449063136
11.647804144994231 -50.719927425637280 4.790240972719566
12.262232269236501 -50.719927425637280 4.583561647499971
13.491088517721041 -50.719927425637280 3.866606285475655
10.418947896509692 -49.722714522904582 4.741574252489774
11.442994770246809 -49.639613447676851 4.709652404764247
12.876660393478771 -49.972017748587753 4.013885878423999
9.190091648025152 -48.476198394488712 4.250843867780382
10.214138521762269 -48.642400544944159 4.754166165112832
11.238185395499384 -48.808602695399614 4.818902110717866
12.262232269236501 -48.725501620171883 3.956465746816756
-3.712898961062508 -47.478985491756013 4.093674417831743
7.654021337419479 -47.728288717439185 4.507543571923991
8.575663523782884 -47.728288717439185 4.492416974997699
10.111733834388557 -47.977591943122363 4.225732356828424
-3.303280211567661 -46.814176889934217 4.362705805486430
-2.176828650456834 -46.980379040389664 4.816864503869688
5.503522902571536 -46.481772589023315 4.340091311506270
6.732379151056075 -46.980379040389664 4.615144624879095
7.756426024793190 -46.814176889934217 4.507300007541678
8.575663523782884 -46.731075814706486 3.964229451811036
9.804519772267422 -46.481772589023315 3.988059370977173
-3.098470836820238 -45.733862911973787 3.976787732511096
-2.176828650456834 -45.484559686290616 4.198521112210381
-0.640758339851160 -45.983166137656966 4.603425077380566
-0.026330215608890 -45.484559686290616 4.274798666978398
5.503522902571536 -45.484559686290616 4.367154703056986
6.425165088934940 -45.733862911973787 4.734126221781156
7.654021337419479 -45.983166137656966 4.329005620672164
-1.869614588335699 -44.487346783557918 4.363187421386772
-1.050377089346006 -44.819751084468820 4.474602030485282
3.045810405602457 -44.985953234924267 3.990868268150694
4.274666654086997 -44.487346783557918 4.273430188894639
5.503522902571536 -44.985953234924267 4.388565191975730
-0.845567714598583 -43.822538181736121 4.475420502922346
0.280883846512244 -43.490133880825219 4.393422710163053
1.202526032875649 -43.490133880825219 4.145286963483098
3.045810405602457 -43.739437106508390 3.981735459613351
3.660238529844727 -43.988740332191568 4.081791619731546
1.202526032875649 -42.991527429458870 4.381140041017968
2.738596343481323 -42.991527429458870 4.353477862318899
-28.904452054995559 -33.019398402131884 3.977482920201388
-28.904452054995559 -31.523579048032840 3.925483088033181
-8.628323955000663 -30.526366145300141 5.016219759079008
-28.904452054995559 -29.529153242567443 3.878971670467719
-27.982809868632156 -29.778456468250617 3.974675030202268
-12.929320824696552 -29.529153242567443 4.165542255692830
-12.007678638333147 -29.529153242567443 4.359564273265629
-11.086036451969742 -29.529153242567443 4.789578618690076
-9.242752079242933 -30.027759693933792 4.557912735407952
12.876660393478771 -29.529153242567443 4.907368871839022
-29.211666117116696 -28.781243565517919 3.946816720664653
-27.880405181258446 -28.698142490290195 4.024330827084745
-26.753953620147616 -28.781243565517919 4.000315378007653
-13.134130199443973 -28.698142490290195 4.122836426940503
-12.007678638333147 -28.781243565517919 4.318247085129575
-11.086036451969742 -28.531940339834744 4.294695521062581
-8.013895830758395 -29.030546791201093 4.457285259210858
12.569446331357636 -29.030546791201093 4.887042855262768
13.695897892468462 -28.864344640745642 4.620958050443976
-27.675595806511019 -27.534727437102045 3.998398303787198
-26.446739558026483 -27.534727437102045 3.963812574791551
-16.001461445907900 -27.534727437102045 3.941223618677397
-14.465391135302225 -27.534727437102045 4.464802181165289
-13.236534886817687 -27.784030662785220 4.442337417008404
-12.314892700454282 -27.784030662785220 4.882226580852810
-9.242752079242933 -27.534727437102045 5.151462389365758
-8.013895830758395 -28.033333888468395 4.201985040009087
12.262232269236501 -28.033333888468395 4.852956695187159
14.105516641963309 -27.534727437102045 5.032282548797179
15.027158828326714 -27.784030662785220 4.152795625404341
-15.796652071160477 -26.869918835280245 4.475644746890757
-14.772605197423360 -26.786817760052521 4.561716481900310
-13.338939574191398 -26.703716684824798 4.956802702519178
-12.314892700454282 -26.537514534369347 5.096839435058754
13.798302579842174 -26.537514534369347 4.920851985455688
15.027158828326714 -26.786817760052521 4.563458111477273
15.948801014690119 -26.537514534369347 3.951508280732132
-16.820698944897590 -25.872705932547547 4.144800660362217
-15.591842696413051 -25.706503782092099 4.491425724273631
-14.465391135302225 -25.789604857319823 4.734951705099923
-13.338939574191398 -25.872705932547547 4.924305206562405
-11.700464576212012 -25.540301631636648 5.043090329827001
-11.086036451969742 -25.540301631636648 5.026671604805181
13.695897892468462 -25.706503782092099 4.694808456713875
14.924754140953002 -25.706503782092099 4.374208069682290
-18.151959880755843 -24.792391954587124 3.908658180488061
-16.923103632271303 -24.792391954587124 3.996198224666917
-15.591842696413051 -24.875493029814848 4.225069174166437
-14.567795822675937 -24.709290879359401 4.738261206716395
-13.236534886817687 -24.543088728903950 4.714218277057481
14.105516641963309 -25.041695180270299 4.939831960760121
15.129563515700426 -24.709290879359401 4.789855648817134
-17.844745818634706 -24.044482277537600 3.911520723878118
-16.615889570150170 -24.044482277537600 4.109499241911879
-15.387033321665630 -23.795179051854426 4.417368868716136
-14.465391135302225 -23.795179051854426 4.379435420109447
-13.236534886817687 -23.795179051854426 4.526191820485064
-12.314892700454282 -23.545875826171251 5.121097320221141
-11.086036451969742 -23.545875826171251 5.079854264589368
12.876660393478771 -24.044482277537600 4.768735814802021
14.105516641963309 -24.044482277537600 4.971952136269455
15.129563515700426 -23.878280127082149 4.632980126830975
-15.387033321665630 -22.797966149121731 4.271637048268265
-14.567795822675937 -22.714865073894007 4.400402833275862
-13.236534886817687 -22.797966149121731 4.672758035994927
-11.700464576212012 -22.548662923438556 5.090049348584463
-9.242752079242933 -23.047269374804902 4.808159186800902
14.105516641963309 -22.797966149121731 4.353922480808469
14.924754140953002 -22.714865073894007 4.898123809583646
15.948801014690119 -23.047269374804902 4.422219934058161
-16.001461445907900 -21.551450020705857 3.994067248247879
-14.567795822675937 -21.883854321616756 4.216684107825337
-13.236534886817687 -21.800753246389032 4.633311133329500
-12.110083325706858 -21.883854321616756 4.691842051172069
-10.778822389848608 -21.800753246389032 4.800686312829646
12.876660393478771 -22.050056472072207 4.240546276789444
14.105516641963309 -21.551450020705857 4.888578749234268
15.027158828326714 -21.800753246389032 4.862121841813791
15.948801014690119 -21.551450020705857 4.155218049196027
-14.158177073181090 -20.803540343656334 4.384053014261543
-13.236534886817687 -20.803540343656334 4.597290755276591
-12.110083325706858 -20.720439268428610 4.483889500992595
-9.857180203485203 -20.554237117973159 4.262421920048256
14.105516641963309 -20.803540343656334 4.716138641734131
14.924754140953002 -20.886641418884057 4.599483723700769
15.948801014690119 -21.052843569339508 3.899286753583267
-14.158177073181090 -19.557024215240460 3.887285709549927
-13.134130199443973 -19.889428516151359 4.556884173615481
-11.905273950959435 -19.723226365695911 4.522352301636369
-10.778822389848608 -19.806327440923635 4.957642828082065
-9.857180203485203 -19.806327440923635 4.815790663862525
-13.236534886817687 -19.058417763874111 4.090717844710976
-12.314892700454282 -19.058417763874111 4.069550252899409
-10.676417702474895 -18.726013462963213 4.770027653912230
-8.628323955000663 -18.809114538190936 4.874901399989806
-9.242752079242933 -18.061204861141412 5.109004179289051
-4.327327085304777 -13.573746798844271 5.096530843666608
-3.098470836820238 -12.576533896111572 3.888383924587290
-2.279233337830545 -11.745523143834323 4.491729708848408
-1.869614588335699 -11.080714542012524 4.566328067942062
-0.845567714598583 -10.914512391557075 4.585943651528606
-26.446739558026483 -9.584895187913476 4.028082173899972
-0.640758339851160 -10.083501639279826 4.252841020816067
9.190091648025152 -9.584895187913476 4.871740751239132
10.418947896509692 -10.083501639279826 4.251563255552564
11.033376020751962 -9.834198413596651 4.046954782902105
-28.904452054995559 -8.587682285180779 5.092089641679963
-27.880405181258446 -8.753884435636229 4.575625928158670
-25.832311433784213 -8.587682285180779 3.992266588203753
-0.640758339851160 -9.086288736547129 3.950859820873349
0.383288533885956 -8.753884435636229 4.313172542177063
7.654021337419479 -8.587682285180779 4.895950239962966
8.575663523782884 -8.836985510863954 4.404318240226641
9.804519772267422 -9.086288736547129 4.725052863758267
-30.133308303480099 -7.839772608131256 4.757097463700624
-29.211666117116696 -7.839772608131256 4.788568276359522
-27.982809868632156 -7.839772608131256 4.496816216167576
-26.446739558026483 -7.839772608131256 4.020759592311674
0.588097908633379 -8.089075833814430 4.185193095076484
6.425165088934940 -7.590469382448081 4.440954362544636
7.654021337419479 -8.089075833814430 4.144468220669776
-31.362164551964639 -7.091862931081732 3.862791947959850
-30.440522365601232 -6.842559705398557 4.783002272635012
-29.211666117116696 -6.842559705398557 4.877659642467061
-27.982809868632156 -6.842559705398557 4.378333020026334
-27.061167682268749 -6.842559705398557 4.412099657892909
6.117951026813805 -6.842559705398557 4.569706671845025
7.346807275298344 -6.593256479715382 3.838847324826937
-30.338117678227523 -5.762245727438134 4.673493642478387
-29.314070804490406 -5.928447877893583 4.676287890593039
-27.880405181258446 -5.762245727438134 4.160131798816050
-26.651548932773906 -5.762245727438134 4.047373732595347
6.425165088934940 -5.845346802665858 3.986803325664614
-30.133308303480099 -5.097437125616335 4.386193163826673
-29.109261429742983 -4.931234975160885 4.401824392970191
-27.675595806511019 -4.848133899933161 4.131792617683538
-27.061167682268749 -4.598830674249986 3.964244150277668
-27.675595806511019 -3.601617771517287 4.274866785788175
-25.832311433784213 -3.850920997200462 3.930888212908883
-27.675595806511019 -2.604404868784589 4.239318487447421
-26.651548932773906 -2.936809169695489 3.984097559084213
-25.217883309541943 -2.604404868784589 3.958472077215819
-23.989027061057403 -2.604404868784589 3.918785897788089
-25.217883309541943 -1.856495191735066 3.955393045045172
-23.989027061057403 -1.607191966051891 4.144180063108353
-22.145742688330593 -1.607191966051891 3.892330621454294
-25.217883309541943 -1.108585514685542 3.934211723869963
-24.603455185299673 -0.609979063319193 3.892084059667098
-22.760170812572863 -0.609979063319193 4.089343611714465
-22.145742688330593 -0.609979063319193 3.846325853888063
-24.603455185299673 -0.111372611952844 3.884020945324178
-23.067384874694000 -0.111372611952844 4.084116597620657
-21.531314564088326 -0.111372611952844 4.042878080957403
-8.321109892879530 3.378872547611600 4.342183820696832
-7.194658331768702 3.046468246700701 4.708390363046277
-9.549966141364068 4.376085450344299 4.139065758785940
-8.321109892879530 4.126782224661124 4.732476760808808
-6.170611458031586 3.877478998977949 4.520012885551849
-11.086036451969742 5.123995127393822 3.936341643369952
-9.447561453990357 5.207096202621546 4.352371179011921
-8.423514580253240 5.207096202621546 4.100208186678021
-10.676417702474895 6.204309105354245 4.206388092291069
-9.549966141364068 5.871904804443346 4.446633175517109
-8.321109892879530 6.121208030126520 4.415353656848388
-7.399467706516125 5.871904804443346 4.961837180201761
-5.556183333789316 6.370511255809695 5.147292211579707
-11.700464576212012 6.869117707176044 3.918569453539652
-10.778822389848608 7.118420932859219 4.172572514875025
-9.652370828737780 7.201522008086943 4.623969097980755
-8.628323955000663 7.367724158542393 4.520613225015189
-6.170611458031586 7.367724158542393 4.693764958447201
-11.905273950959435 8.198734910819642 4.046214721529654
-10.778822389848608 8.115633835591916 3.984069385724513
-9.652370828737780 8.198734910819642 4.296832572990995
-8.628323955000663 8.115633835591916 4.609814438608528
-7.092253644394990 7.866330609908742 5.049076637535107
-12.007678638333147 8.863543512641440 3.995140786457330
-10.778822389848608 9.112846738324615 4.183789088222915
-9.549966141364068 9.112846738324615 4.728715129315121
-8.628323955000663 9.362149964007790 4.924660528867100
-7.092253644394990 8.863543512641440 4.683540765650648
-12.110083325706858 10.026958565829588 3.851458356851621
-11.086036451969742 9.860756415374139 4.050172347392930
-9.652370828737780 10.193160716285039 4.549377528197774
-8.628323955000663 10.110059641057314 4.448796799551960
-7.092253644394990 10.359362866740488 4.412973585151734
-11.700464576212012 10.857969318106838 4.059106989912689
-9.447561453990357 11.024171468562287 4.381946522138221
-8.423514580253240 11.190373619017738 4.503889582224852
-7.399467706516125 11.107272543790012 4.409223051222161
-8.218705205505819 12.187586521750434 4.104896174421106
-6.989848957021279 12.187586521750434 4.690489265483864
-6.170611458031586 12.353788672205884 5.053612530401485
-6.785039582273855 13.351001574938582 3.905762858521342
-5.863397395910451 13.351001574938582 4.333665521848692
-4.941755209547047 12.852395123572233 5.009081381428527
-2.484042712577969 13.351001574938582 4.247026235888233
-6.785039582273855 14.348214477671281 4.120378843881396
-5.863397395910451 14.098911251988106 4.618991752078955
-4.634541147425912 14.348214477671281 4.531645766461007
-3.712898961062508 14.348214477671281 4.510435531356165
-5.760992708536740 15.013023079493079 4.172680119924450
-4.736945834799624 15.013023079493079 4.669851666814970
-3.405684898941373 14.846820929037630 4.599244035034563
-21.531314564088326 24.320343504998263 4.581300269687814
-20.609672377724920 24.071040279315088 4.446223109036096
-19.380816129240383 24.071040279315088 4.189458592900129
-21.531314564088326 24.818949956364612 3.888153072026865
-20.609672377724920 24.818949956364612 4.554461909249776
-19.278411441866670 24.985152106820063 4.674814496980048
-18.459173942876976 24.818949956364612 4.049322660943933
2.738596343481323 25.317556407730962 4.418159056207429
-19.073602067119246 26.065466084780486 4.282553767120917
-18.254364568129553 26.148567160008209 4.634523560004626
3.045810405602457 26.314769310463660 4.168523012368137
-18.049555193382130 26.979577912285460 4.475881933954183
-19.688030191361516 28.309195115929057 4.646636887367102
-18.151959880755843 28.059891890245883 4.265071803056649
-19.278411441866670 28.974003717750858 4.836379210408598
-18.049555193382130 28.974003717750858 4.740883725440761
-17.230317694392436 28.807801567295407 3.882540253030638
-20.302458315603786 29.805014470028105 5.133101312074304
-19.380816129240383 30.303620921394455 4.910237008313216
-18.459173942876976 30.054317695711280 4.146741867711823
-20.507267690351210 31.134631673671699 4.483996754521228
-19.380816129240383 30.802227372760800 4.279352487968174
-21.531314564088326 32.298046726859852 4.242075919247110
-20.916886439846056 32.298046726859852 4.689742143548907
-19.688030191361516 31.799440275493499 4.229141441526914
-20.302458315603786 33.045956403909372 4.513758354297408
-19.483220816614093 33.129057479137103 4.149935648676983
-21.531314564088326 33.793866080958900 4.409146964281234
-20.302458315603786 34.043169306642071 4.362590935849114
-19.380816129240383 33.793866080958900 4.129688150378453
-15.387033321665630 34.292472532325249 4.011537696758646
-14.465391135302225 34.292472532325249 4.221421751306558
-13.134130199443973 33.960068231414347 4.283438955049573
-12.007678638333147 34.043169306642071 4.632434929084035
-11.086036451969742 34.292472532325249 4.599875957870702
-21.531314564088326 35.289685435057947 4.578485104281442
-20.712077065098629 35.123483284602500 4.490282995330679
-19.688030191361516 35.040382209374769 3.980658206330454
-15.387033321665630 35.040382209374769 3.989209731254255
-14.567795822675937 35.123483284602500 4.200368367673138
-13.543748948938820 35.040382209374769 4.863021719956746
-12.007678638333147 35.040382209374769 5.003512202513631
-10.471608327727473 35.289685435057947 4.332322682737293
-20.507267690351210 36.120696187335191 4.474820152919790
-19.380816129240383 36.037595112107468 4.298259863697556
-14.465391135302225 36.037595112107468 4.520941014545286
-13.338939574191398 35.954494036879737 4.994322882711878
-11.905273950959435 35.954494036879737 4.506316689174423
-10.778822389848608 36.037595112107468 4.437662952361266
-9.549966141364068 36.037595112107468 4.983940342876761
-8.628323955000663 36.037595112107468 4.731524092094520
11.647804144994231 36.286898337790639 4.023729531752301
-20.609672377724920 36.785504789156988 4.659650893707875
-19.483220816614093 37.117909090067890 4.525293950210607
-15.694247383786765 37.034808014840166 4.205762010274246
-14.362986447928513 37.117909090067890 4.625312632912197
-13.543748948938820 36.785504789156988 4.608979419018941
-11.905273950959435 37.117909090067890 4.871283096820056
-10.471608327727473 37.284111240523337 4.765005410081310
-9.549966141364068 37.284111240523337 4.403431570497767
-8.013895830758395 37.034808014840166 4.586876093892398
-7.092253644394990 37.034808014840166 4.918246617875656
9.190091648025152 37.284111240523337 3.856262240690360
10.111733834388557 37.034808014840166 3.947348669602858
11.033376020751962 37.284111240523337 4.256211710766571
12.569446331357636 37.284111240523337 4.114487360100605
15.027158828326714 37.284111240523337 3.940963403227470
-20.302458315603786 37.782717691889687 4.760386941471972
-19.688030191361516 38.032020917572865 4.511094850967035
-16.615889570150170 38.281324143256036 4.664530505101930
-16.001461445907900 38.032020917572865 4.432903551305058
-14.465391135302225 38.032020917572865 4.616596648792628
-13.134130199443973 37.948919842345134 4.668601329582961
-12.110083325706858 37.948919842345134 4.714241509693330
-10.676417702474895 37.948919842345134 4.527831176469932
9.190091648025152 37.782717691889687 3.847901409059621
10.418947896509692 37.782717691889687 4.043854802278553
11.442994770246809 38.115121992800589 4.081721949822098
12.569446331357636 37.782717691889687 3.991497316959339
14.105516641963309 37.782717691889687 3.955058656622533
15.948801014690119 38.032020917572865 3.911114160791456
-16.615889570150170 39.278537045988735 4.424970099314753
-15.796652071160477 38.946132745077833 4.486029630627860
-14.362986447928513 38.946132745077833 4.904344402843496
-13.236534886817687 38.779930594622385 4.801876799720969
-12.314892700454282 39.278537045988735 4.776675274787250
-10.471608327727473 39.278537045988735 4.736716478400878
-9.447561453990357 39.112334895533287 4.333493233277862
-8.628323955000663 39.278537045988735 5.144363968814296
-7.399467706516125 39.029233820305564 4.438112571186813
10.111733834388557 39.278537045988735 4.135319650967865
11.647804144994231 39.278537045988735 4.217252125378030
12.671851018731347 39.112334895533287 4.118186086544329
13.798302579842174 39.278537045988735 4.170692240099609
15.027158828326714 39.029233820305564 3.911513935304011
-16.615889570150170 39.777143497355084 4.189770294538599
-15.694247383786765 40.026446723038262 4.287032586575025
-14.465391135302225 40.026446723038262 4.423287963810830
-13.543748948938820 40.275749948721433 4.347141165723220
-11.700464576212012 40.275749948721433 4.988189563863719
-9.242752079242933 39.777143497355084 4.924805352728986
-8.628323955000663 39.777143497355084 4.911144583094014
9.190091648025152 39.777143497355084 4.950601961189941
10.009329147014846 39.943345647810531 4.704733980665610
11.033376020751962 40.026446723038262 4.335341851924023
12.876660393478771 40.026446723038262 4.182729538483860
13.900707267215887 39.943345647810531 4.075377104812986
15.334372890447849 39.777143497355084 3.895357480235210
-12.314892700454282 40.774356400087783 4.547494182842550
-9.242752079242933 40.774356400087783 4.930927368861412
-15.387033321665630 48.253453170583022 3.914190599150553
-14.465391135302225 48.253453170583022 4.342224002487105
-13.236534886817687 48.253453170583022 4.321144021579219
-10.881227077222320 47.921048869672120 4.640605881663632
-9.549966141364068 48.253453170583022 5.026797925012285
-14.772605197423360 49.250666073315720 3.897689001900666
-13.338939574191398 49.084463922860273 4.097110404254727
-12.110083325706858 48.918261772404819 4.516038073584139
-10.778822389848608 49.001362847632542 4.770444926754592
-9.242752079242933 49.250666073315720 4.670766745067556
-8.628323955000663 48.752059621949371 5.114546645426551
-13.236534886817687 49.998575750365241 3.914447724239762
-12.007678638333147 49.749272524682070 4.055247462584265
-10.676417702474895 50.081676825592972 4.408367507008333
-9.857180203485203 49.749272524682070 4.685183955401896
-8.013895830758395 49.749272524682070 4.872325146324090
-13.543748948938820 50.746485427414768 3.860262907522475
-11.700464576212012 51.245091878781118 4.037283681167147
-10.471608327727473 51.245091878781118 4.476606614689188
-9.242752079242933 51.245091878781118 5.127453466078806
-4.941755209547047 51.245091878781118 4.793866314809773
8.882877585904017 51.245091878781118 5.144392778137974
10.111733834388557 50.995788653097939 4.719674264629532
11.033376020751962 51.245091878781118 4.176231831677517
-9.652370828737780 52.076102631058369 4.378244282889434
-8.321109892879530 51.993001555830638 4.988510990142290
8.882877585904017 51.993001555830638 4.747465698456678
10.009329147014846 51.909900480602914 4.586905959824428
11.033376020751962 51.993001555830638 4.182872736455570
-9.549966141364068 52.740911232880165 4.330479474991658
-8.423514580253240 53.073315533791067 4.575817710224694
8.882877585904017 52.990214458563337 4.977421545617367
10.009329147014846 52.907113383335613 4.666782084649817
-9.242752079242933 53.738124135612864 3.990808556414235
-8.628323955000663 54.236730586979213 3.968845738186614
-7.194658331768702 54.070528436523766 4.623621884112934
-5.863397395910451 54.236730586979213 4.477252542376704
8.882877585904017 53.987427361296035 5.040384179785586
10.111733834388557 53.987427361296035 3.978641085220109
-8.013895830758395 54.735337038345563 3.953698625376965
-7.194658331768702 55.067741339256465 4.099559698626321
-5.965802083284163 54.901539188801010 4.896217492132847
7.961235399540614 55.233943489711912 4.027312107401160
8.575663523782884 54.735337038345563 4.017170141997668
-5.760992708536740 55.898752091533709 4.144052786167083
-4.941755209547047 55.981853166761432 4.345220171742509
-1.869614588335699 56.231156392444611 4.281731812516377
-5.863397395910451 56.729762843810960 4.485161936423848
-4.736945834799624 57.062167144721855 4.728359779846014
-5.556183333789316 57.726975746543651 3.912211399173718
-4.634541147425912 57.726975746543651 4.461340104549538
-3.508089586315085 58.059380047454553 4.252473828340761
-25.217883309541943 59.222795100642699 3.945517144596356
-24.193836435804826 58.890390799731797 4.060888972285104
-22.760170812572863 59.222795100642699 4.562415167166111
-3.098470836820238 58.973491874959528 4.204279597425952
-2.176828650456834 59.222795100642699 4.415453998266322
-1.255186464093430 59.222795100642699 4.048615633948137
-25.217883309541943 59.970704777692227 4.059495628188471
-24.398645810552249 59.887603702464496 4.602474113355733
-23.374598936815133 60.220008003375398 4.812136236733556
-19.688030191361516 59.721401552009048 4.492209480635705
-2.176828650456834 59.970704777692227 4.298187291683588
-25.217883309541943 61.217220906108096 4.626626831391175
-24.398645810552249 60.884816605197194 4.609586641842005
-23.374598936815133 60.718614454741747 3.904658801885772
-16.615889570150170 60.718614454741747 4.197248852781969
-16.001461445907900 61.217220906108096 4.871971115223718
-0.640758339851160 60.967917680424925 4.383502153357148
-25.217883309541943 61.715827357474446 4.626768526975202
-24.603455185299673 61.715827357474446 5.067253005892158
-15.387033321665630 61.715827357474446 3.943169182493915
-25.217883309541943 62.962343485890322 4.125476421967130
-24.296241123178540 62.962343485890322 4.847712409472911
-14.567795822675937 62.879242410662592 4.719768678741901
22.707510381355082 62.713040260207144 4.132692708807560
23.731557255092198 63.045444561118046 4.415563920830037
24.960413503576738 63.045444561118046 4.085021630412832
25.779651002566432 63.211646711573493 4.294103669180632
-25.217883309541943 63.959556388623021 4.343589558581976
-24.603455185299673 63.959556388623021 4.335549081720245
-14.567795822675937 64.042657463850745 4.625893762973043
1.202526032875649 63.710253162939843 4.866839522196483
2.431382281360188 64.208859614306192 4.831321294357577
22.707510381355082 64.208859614306192 4.357084288323790
23.731557255092198 64.042657463850745 4.330143159749278
24.858008816203025 63.959556388623021 4.310480502938026
26.086865064687565 63.710253162939843 4.388063471177633
27.008507251050972 64.208859614306192 4.024767028643193
-25.422692684289366 65.039870366583443 4.274196843246370
-24.398645810552249 65.039870366583443 4.629748374966437
-15.387033321665630 64.707466065672548 5.030300586107572
-14.158177073181090 64.956769291355712 4.656757410472496
-13.543748948938820 65.206072517038891 3.843923954971478
21.478654132870545 65.206072517038891 3.927084778880508
22.502701006607658 64.873668216127996 4.357286474027283
23.629152567718489 64.956769291355712 4.275063637018794
24.858008816203025 64.707466065672548 4.533259801344769
26.086865064687565 64.956769291355712 4.619451598430176
27.008507251050972 64.707466065672548 4.253203533520524
-24.296241123178540 65.953982194088411 4.554448929039927
-17.844745818634706 65.704678968405247 4.170124392317832
-14.465391135302225 65.953982194088411 4.092575891720181
20.864226008628275 65.704678968405247 3.934691993544188
22.400296319233949 65.953982194088411 4.303710769575988
23.629152567718489 65.953982194088411 4.615584540392041
24.960413503576738 66.037083269316142 4.913114502407653
26.189269752061275 66.037083269316142 4.726392905867432
27.315721313172105 65.953982194088411 4.474183945986421
-14.362986447928513 66.868094021593393 4.241754661340550
-13.543748948938820 67.200498322504288 4.304052354359601
21.478654132870545 66.951195096821110 4.034024393575308
22.502701006607658 67.034296172048840 4.055862411853307
23.629152567718489 66.951195096821110 4.278768011547704
24.858008816203025 66.951195096821110 4.415201764793640
26.086865064687565 66.951195096821110 4.504954806721805
27.315721313172105 66.951195096821110 4.472776499038311
-14.465391135302225 67.699104773870630 4.557438100645033
-13.543748948938820 67.699104773870630 3.841686613422377
21.171440070749409 67.948407999553808 4.160369517500164
22.707510381355082 68.197711225236986 4.137212966437297
23.629152567718489 67.948407999553808 4.277218116995951
24.858008816203025 67.948407999553808 4.530619636694706
26.086865064687565 67.948407999553808 4.851239585187741
27.213316625798395 68.031509074781525 4.782892097414498
21.478654132870545 69.194924127969685 4.156186138332349
22.502701006607658 69.028721977514223 4.135878040795756
23.629152567718489 68.945620902286507 4.451736019179719
24.960413503576738 69.028721977514223 4.232126065253877
26.086865064687565 68.945620902286507 4.851648740892142
27.315721313172105 68.696317676603329 4.707833838856139
-16.001461445907900 73.183775738900479 5.033130160442176
-13.236534886817687 72.934472513217301 4.753111894382577
-14.158177073181090 74.928898318682698 4.874654377412974
-13.236534886817687 74.928898318682698 4.797595536150825
-12.929320824696552 75.926111221415397 4.735032181020878
-13.134130199443973 77.837435951653077 4.132549172833903
-14.465391135302225 78.917749929613493 4.196278446347841
-13.543748948938820 78.917749929613493 4.512124696752723
-16.615889570150170 80.164266058029369 4.335956648715953
-13.543748948938820 79.665659606663013 4.259594733591719
-17.844745818634706 80.662872509395712 4.810204912939715
-16.615889570150170 81.161478960762068 3.870333710316808
-16.001461445907900 81.161478960762068 4.766228113654995
-14.362986447928513 80.995276810306606 4.727170308260925
-16.001461445907900 82.158691863494766 4.965810906271669
-14.465391135302225 81.909388637811588 4.777854987892662
-13.543748948938820 81.660085412128410 4.251131294326207
-16.615889570150170 82.657298314861109 4.069295428200644
-15.694247383786765 82.657298314861109 4.620461113972377
-19.073602067119246 -75.400946768271567 5.715346795527696
-18.459173942876976 -75.400946768271567 5.239797414982593
-25.217883309541943 -74.653037091222032 6.187665977310813
-23.374598936815133 -74.403733865538868 6.141579568826551
-20.916886439846056 -74.902340316905210 6.137540704209616
-19.073602067119246 -74.902340316905210 5.675634638331415
-18.459173942876976 -74.902340316905210 5.432682554505318
-17.230317694392436 -74.403733865538868 5.544681494899004
-24.296241123178540 -73.905127414172512 6.264281082386236
-23.067384874694000 -73.905127414172512 5.895966839677603
-20.302458315603786 -73.905127414172512 6.291752501000114
-19.073602067119246 -73.905127414172512 6.268943787466801
-18.151959880755843 -73.905127414172512 5.557929762402517
-17.230317694392436 -73.406520962806169 5.292206161146488
-17.230317694392436 -72.658611285756635 5.480281110413460
-8.321109892879530 -66.924637095043622 5.291760923904845
-12.007678638333147 -65.428817740944581 5.505254671875218
-10.471608327727473 -65.428817740944581 6.479577265931256
-9.447561453990357 -65.761222041855476 5.978914853818481
-14.158177073181090 -64.680908063895060 5.255287362386484
-12.007678638333147 -64.680908063895060 6.044527735685400
-11.086036451969742 -64.431604838211882 5.562081987946206
-9.857180203485203 -64.930211289578224 6.319462048835176
-12.929320824696552 -63.932998386845533 5.760901271479816
-11.905273950959435 -63.600594085934631 6.244962160820268
-11.086036451969742 -63.683695161162355 5.718610166522210
-9.242752079242933 -63.434391935479184 5.178563268499181
7.961235399540614 -63.434391935479184 5.726698280370990
8.575663523782884 -63.434391935479184 6.175198515324338
-13.134130199443973 -62.603381183201932 5.424338103878879
-12.007678638333147 -62.686482258429656 6.319068910399459
7.961235399540614 -62.935785484112834 6.135968381240917
8.882877585904017 -62.686482258429656 5.652176721979767
-13.236534886817687 -61.689269355696958 5.813644207033449
-12.007678638333147 -61.689269355696958 6.295107118745321
-10.778822389848608 -61.439966130013786 5.854466801113830
-9.857180203485203 -61.439966130013786 6.395890023635606
9.190091648025152 -61.938572581380136 5.367159623245387
10.009329147014846 -61.606168280469234 5.611582302043919
-12.007678638333147 -60.692056452964259 5.786924383050752
-10.778822389848608 -60.692056452964259 6.146693936581817
10.418947896509692 -60.692056452964259 5.931306719004350
11.033376020751962 -60.442753227281088 5.902564376826757
-11.905273950959435 -59.777944625459291 5.295905942693784
-10.881227077222320 -59.777944625459291 5.956554050056620
-9.857180203485203 -59.694843550231568 5.972271208792683
-8.423514580253240 -59.777944625459291 6.353742023379232
-7.399467706516125 -59.445540324548389 5.801564514768507
11.340590082873096 -59.944146775914739 5.523124962712761
-10.881227077222320 -58.780731722726593 5.602929138410505
-9.652370828737780 -58.614529572271138 6.097511891907399
-8.628323955000663 -58.946933873182040 6.461931148004798
11.647804144994231 -58.448327421815691 5.306328494139417
12.876660393478771 -58.448327421815691 5.290558156978746
11.033376020751962 -57.451114519082992 5.754893650471756
12.569446331357636 -57.700417744766170 5.717430846582825
13.491088517721041 -57.700417744766170 5.243013691210566
11.647804144994231 -56.703204842033472 6.154707617290835
12.569446331357636 -56.703204842033472 5.503573862854713
13.491088517721041 -56.952508067716643 5.448311840324145
11.647804144994231 -55.955295164983944 5.462023143344081
12.467041643983924 -55.789093014528497 5.598172745469248
13.491088517721041 -55.955295164983944 5.431507058689919
11.647804144994231 -54.708779036568075 6.207187998782823
12.569446331357636 -54.708779036568075 5.502264852723425
11.647804144994231 -53.711566133835376 6.015252211417648
12.262232269236501 -53.711566133835376 5.893706948002598
11.442994770246809 -52.797454306330401 5.655357200636854
-4.941755209547047 -51.467837102686801 6.378919732055722
9.190091648025152 -51.467837102686801 5.202183845682891
11.033376020751962 -51.717140328369979 5.869347079051796
-5.556183333789316 -50.470624199954102 6.291963156193861
-4.327327085304777 -50.969230651320451 6.109025802420870
10.111733834388557 -50.719927425637280 6.281973181995019
11.033376020751962 -50.969230651320451 5.541120282430307
-5.556183333789316 -49.722714522904582 6.022436958101665
-4.736945834799624 -49.639613447676851 6.134715480600214
-3.712898961062508 -49.473411297221404 5.512757777951981
7.961235399540614 -49.473411297221404 5.704862295831609
8.575663523782884 -49.972017748587753 6.384803204675852
9.804519772267422 -49.722714522904582 6.009970042833705
-4.532136460052200 -48.808602695399614 5.711398247921110
-3.405684898941373 -48.725501620171883 5.800653568556783
-2.484042712577969 -48.476198394488712 6.118147347278159
5.503522902571536 -48.476198394488712 5.923363983966915
7.346807275298344 -48.476198394488712 5.892198645837111
8.780472898530308 -48.808602695399614 6.161717124055579
9.804519772267422 -48.974804845855061 5.622957930346533
-3.303280211567661 -47.811389792666915 5.447518947172023
-2.484042712577969 -47.728288717439185 5.657110158016724
-1.255186464093430 -47.977591943122363 6.303665830284192
2.431382281360188 -47.478985491756013 6.466852536312212
6.527569776308651 -47.811389792666915 6.125076821233508
7.654021337419479 -47.728288717439185 5.192365006572238
-2.484042712577969 -46.481772589023315 5.435085294817984
-0.947972401972295 -46.481772589023315 5.384777705567315
-0.026330215608890 -46.481772589023315 6.072547034215401
6.425165088934940 -46.481772589023315 5.927051566980351
7.346807275298344 -46.481772589023315 5.173145350050408
-1.869614588335699 -45.983166137656966 5.226619708936978
-1.050377089346006 -45.650761836746064 5.353800903598267
0.588097908633379 -45.733862911973787 5.737699154584182
4.274666654086997 -45.484559686290616 6.182948174226089
5.093904153076689 -45.816963987201518 5.689038510479620
-0.640758339851160 -44.487346783557918 5.464675465486303
0.178479159138533 -44.819751084468820 5.813864693957646
1.816954157117918 -44.487346783557918 5.692592740429541
2.738596343481323 -44.487346783557918 6.076776350480825
3.967452591965862 -44.736650009241089 5.492544114863175
0.280883846512244 -43.988740332191568 6.083117510546219
1.509740094996783 -43.739437106508390 5.736759314712733
2.431382281360188 -43.490133880825219 5.261931692318291
-9.242752079242933 -30.526366145300141 5.252182394554841
-6.785039582273855 -31.024972596666490 6.332747840377239
-10.471608327727473 -29.529153242567443 5.456466507147573
-9.652370828737780 -29.695355393022894 5.614062933420545
-7.399467706516125 -30.027759693933792 6.105883007678493
-11.700464576212012 -28.531940339834744 5.218736630676798
-10.676417702474895 -28.864344640745642 5.430353711985551
-9.549966141364068 -29.030546791201093 6.207155217106573
12.569446331357636 -28.531940339834744 5.536315658317616
14.105516641963309 -28.531940339834744 5.262868045119014
-11.700464576212012 -28.033333888468395 5.204747576983495
-10.778822389848608 -27.784030662785220 5.868424024815803
-9.857180203485203 -27.534727437102045 5.613336595888876
-8.321109892879530 -27.534727437102045 6.383498931447884
12.671851018731347 -27.700929587557496 5.674300244343667
13.695897892468462 -27.867131738012944 5.338388550865577
-12.929320824696552 -27.036120985735696 5.305665312204860
-11.905273950959435 -26.869918835280245 5.745398327650706
-10.881227077222320 -26.703716684824798 5.797827198157449
-8.321109892879530 -26.786817760052521 5.776542635354940
11.647804144994231 -26.786817760052521 5.741608906028891
12.671851018731347 -26.869918835280245 5.965841686126851
13.491088517721041 -27.036120985735696 5.759032926030287
-12.929320824696552 -25.540301631636648 5.573440982340119
-12.110083325706858 -25.872705932547547 5.740533827569753
-10.676417702474895 -25.872705932547547 6.239030651638464
-9.242752079242933 -25.789604857319823 5.851782576092999
12.876660393478771 -25.540301631636648 5.871236694798621
14.105516641963309 -26.038908083002998 5.379947381066465
-13.236534886817687 -25.041695180270299 5.377064658111586
-12.007678638333147 -24.792391954587124 5.694254131108496
-10.881227077222320 -24.709290879359401 6.321229927962356
-9.857180203485203 -25.041695180270299 6.209075365589302
10.418947896509692 -24.543088728903950 5.280312129559395
12.876660393478771 -24.543088728903950 5.223024201164971
13.695897892468462 -24.709290879359401 5.430041159508759
-11.700464576212012 -23.795179051854426 5.693814829854280
-10.778822389848608 -23.795179051854426 6.122060934724005
-9.549966141364068 -23.545875826171251 5.962159519446423
-8.628323955000663 -24.044482277537600 6.426549111577370
12.876660393478771 -23.545875826171251 6.347944022067354
13.491088517721041 -23.795179051854426 5.766591090112198
-12.110083325706858 -22.881067224349451 5.708225372967028
-10.778822389848608 -22.797966149121731 5.521056265817319
12.876660393478771 -23.047269374804902 5.638285404713548
13.491088517721041 -22.797966149121731 5.613594323716573
-11.700464576212012 -21.551450020705857 5.292442378920900
-10.778822389848608 -21.800753246389032 5.597997867363349
-9.549966141364068 -21.800753246389032 5.973352930813537
-8.013895830758395 -21.551450020705857 5.884141469703832
11.033376020751962 -21.551450020705857 5.191344719241899
12.876660393478771 -21.551450020705857 6.278574215235845
13.695897892468462 -21.883854321616756 5.583851611574620
-11.700464576212012 -21.052843569339508 5.256277910521250
-10.778822389848608 -20.803540343656334 5.390035264127914
-9.549966141364068 -20.803540343656334 5.754238156426085
-8.321109892879530 -20.803540343656334 5.843779935523772
11.033376020751962 -20.554237117973159 5.367789299275398
13.491088517721041 -20.554237117973159 5.773057839734153
-10.471608327727473 -20.055630666606810 5.634213587935617
-9.242752079242933 -19.557024215240460 5.363422185468385
-8.423514580253240 -19.889428516151359 6.185540850502070
12.569446331357636 -19.806327440923635 5.854485111033775
-9.549966141364068 -19.058417763874111 5.591074978891029
-8.013895830758395 -18.809114538190936 6.110773274754156
-7.092253644394990 -18.809114538190936 6.150054470019153
-8.321109892879530 -18.061204861141412 5.427037371065133
-7.399467706516125 -18.061204861141412 5.741316499336902
-4.327327085304777 -16.565385507042365 6.310538236638910
-4.327327085304777 -14.072353250210620 6.240887124866168
-3.098470836820238 -13.573746798844271 5.972761203592832
-4.327327085304777 -13.075140347477921 5.308306287157407
-3.712898961062508 -13.075140347477921 5.755134487072111
-0.947972401972295 -12.825837121794747 6.348238705000887
-1.869614588335699 -12.077927444745223 5.224501176733138
-0.640758339851160 -11.828624219062048 5.433112512104984
-0.026330215608890 -10.582108090646175 6.408624986213057
0.588097908633379 -9.834198413596651 5.587215803758941
1.816954157117918 -9.584895187913476 6.417390073446236
-27.061167682268749 -9.086288736547129 5.188306130487537
1.202526032875649 -8.836985510863954 6.257907450738502
1.202526032875649 -8.089075833814430 6.225310886755834
5.503522902571536 -7.091862931081732 6.405004316318738
5.503522902571536 -6.094650028349033 5.423361129906808
-6.989848957021279 4.043681149433399 5.675041154492800
-7.194658331768702 5.040894052166098 6.049090165737236
-6.170611458031586 5.373298353076996 5.411083974971740
-8.013895830758395 6.370511255809695 5.658238513416184
-7.092253644394990 6.121208030126520 6.320030262095767
-8.013895830758395 7.118420932859219 6.217799683816384
-7.092253644394990 7.367724158542393 6.079940409661204
-5.556183333789316 7.367724158542393 5.816890951285585
-4.941755209547047 6.869117707176044 6.493548811488948
-8.013895830758395 8.115633835591916 5.855964616074195
-7.092253644394990 8.364937061275091 5.939854472826612
-5.556183333789316 8.364937061275091 6.245835913935847
-8.218705205505819 9.029745663096890 5.528661025191289
-7.092253644394990 9.362149964007790 6.366275215601076
-4.941755209547047 8.863543512641440 6.230233175341816
-8.013895830758395 10.110059641057314 5.568693650891856
-7.092253644394990 9.860756415374139 6.017878363243358
-5.863397395910451 10.359362866740488 5.863936429370588
-8.013895830758395 10.857969318106838 5.345292910245862
-6.785039582273855 11.107272543790012 5.645947800018646
-5.965802083284163 11.190373619017738 6.193624705013702
-5.760992708536740 12.021384371294983 6.181186105772255
-4.634541147425912 12.353788672205884 6.035411775976717
-4.532136460052200 13.184799424483133 5.830612476097522
-3.098470836820238 12.852395123572233 5.196155994838466
-4.327327085304777 13.849608026304931 5.214433881810777
-3.303280211567661 14.015810176760381 6.094634925754140
-2.279233337830545 14.015810176760381 6.072337822673108
-2.484042712577969 14.846820929037630 5.377813745352940
1.816954157117918 24.320343504998263 5.357766291369946
-22.760170812572863 25.317556407730962 6.206545604238920
-21.838528626209460 25.317556407730962 5.948858317970803
-20.609672377724920 25.317556407730962 6.146754390017070
-19.688030191361516 25.317556407730962 5.446296148482106
2.738596343481323 24.818949956364612 5.908252965674339
3.967452591965862 25.317556407730962 6.328768669184413
-23.989027061057403 26.314769310463660 6.217378615563125
-23.374598936815133 25.816162859097311 6.435816433897132
-21.838528626209460 26.065466084780486 5.823913239281140
-20.609672377724920 26.065466084780486 6.254388481943555
-19.688030191361516 26.065466084780486 5.434349870710679
3.045810405602457 25.816162859097311 5.781346471030429
3.967452591965862 26.065466084780486 5.978601052364171
4.889094778329266 25.816162859097311 5.730045946884582
-24.193836435804826 27.145780062740908 6.235538188908600
-21.531314564088326 26.813375761830009 6.384218174964892
-20.302458315603786 27.062678987513184 6.365091091522990
-19.380816129240383 27.062678987513184 5.605113536404207
-23.989027061057403 27.810588664562708 6.478108296817042
-19.278411441866670 27.976790815018159 5.572936457095564
-23.989027061057403 28.807801567295407 5.636370398594219
-21.531314564088326 29.306408018661756 5.678577074880127
-20.916886439846056 29.306408018661756 6.302182221594520
-19.688030191361516 29.306408018661756 6.040965006517496
-25.217883309541943 29.805014470028105 6.395527677644888
-23.067384874694000 29.805014470028105 5.886442197827885
-21.531314564088326 29.805014470028105 6.077203467110550
-20.609672377724920 30.054317695711280 6.136223412597487
-19.073602067119246 29.805014470028105 5.336207382123249
-21.531314564088326 31.300833824127150 5.693679321054937
-21.531314564088326 31.799440275493499 5.635548579283895
-20.916886439846056 31.799440275493499 5.193972438154387
-20.916886439846056 33.045956403909372 5.558634499339131
-21.531314564088326 34.292472532325249 5.293125320764357
-20.916886439846056 34.043169306642071 5.526619342067789
-21.531314564088326 34.791078983691598 5.978088176757023
-20.302458315603786 34.791078983691598 5.253111556303430
-11.086036451969742 35.289685435057947 5.259382103711954
-9.549966141364068 35.289685435057947 5.325884938450286
-20.916886439846056 35.788291886424290 5.478166558559641
